-0.089538 -6.046194 1.904782 86 101 114
-0.186342 -6.022632 1.073374 65 62 49
-0.048790 -6.065945 1.855128 54 57 63
0.030896 -5.986162 0.949373 58 57 49
-0.255913 -5.943238 1.065365 90 89 75
-0.475420 -5.922604 1.047828 125 122 100
-0.462667 -5.985381 0.986781 79 80 65
-0.364255 -5.945100 1.048459 134 130 110
-0.288219 -5.857393 1.164811 147 141 120
-0.002592 -5.625096 1.031716 140 134 119
0.052525 -5.628944 1.396719 62 54 41
0.013926 -5.984051 1.519803 50 61 71
-0.381855 -5.990137 1.160867 111 106 87
-0.188016 -5.990627 0.996393 78 79 61
-0.036760 -5.992917 1.127719 47 44 35
-0.003078 -6.086271 2.024158 76 101 126
-0.200327 -5.634337 1.257552 154 150 133
0.036042 -6.058204 1.832775 76 98 125
-0.290286 -5.892996 1.961020 198 206 205
-0.028568 -5.944913 1.005421 55 51 37
-0.271831 -5.718183 1.292345 142 137 122
-0.192741 -5.629989 1.472228 145 141 127
-0.267819 -5.922737 1.283649 130 127 115
-0.282253 -6.036693 1.772583 115 117 104
0.044158 -6.009247 1.750208 83 105 137
-0.274015 -5.604460 1.772961 153 155 144
0.171285 -6.055871 1.845113 55 81 111
-0.146423 -6.015711 1.361164 47 45 40
-0.249680 -5.947126 1.195642 85 84 72
-0.264215 -5.707851 1.483184 154 151 136
0.045554 -6.057550 1.990524 90 112 137
-0.126342 -6.022546 1.757896 63 69 73
0.150711 -5.958391 1.969302 58 83 116
-0.294050 -5.714948 1.960999 201 210 209
-0.280593 -5.810600 2.053665 201 210 210
-0.304509 -5.734754 1.826592 77 76 68
-0.572528 -5.675190 0.980988 88 99 90
-0.262420 -5.703400 1.643238 155 156 147
-0.275354 -5.724183 1.188462 127 122 107
-0.388026 -5.855946 1.129181 132 126 108
0.013094 -5.638251 0.898389 161 152 128
-0.203445 -5.630670 1.116745 152 148 135
-0.288997 -5.722102 0.965240 150 149 135
-0.568212 -5.648696 1.042492 40 47 31
0.100592 -5.705719 1.481984 54 51 34
0.040755 -5.627468 1.102566 83 81 70
2.229550 -5.687206 0.910120 123 125 121
2.314375 -6.125581 0.878127 76 73 67
2.547057 -6.319289 0.886034 44 42 35
2.231081 -6.058948 1.932933 89 89 78
2.242153 -5.982505 1.600968 99 99 89
2.208887 -6.006846 1.977283 90 87 72
2.569358 -6.386404 0.755693 20 18 18
2.571631 -6.790923 0.733320 10 10 11
2.568591 -6.413822 0.601799 49 51 51
2.551113 -6.478239 1.876261 36 37 40
2.306014 -6.058980 1.720411 104 102 89
2.286802 -6.066291 1.029171 140 138 129
2.465991 -6.289959 1.073752 50 49 42
2.433170 -6.189599 1.424985 89 87 85
2.551638 -6.292149 0.962175 39 36 29
2.226948 -5.936697 1.132134 122 118 109
2.183982 -5.640462 1.106096 114 115 109
2.577208 -6.463724 0.948098 25 25 23
2.506325 -6.697209 1.912607 21 21 21
2.264806 -6.102110 1.342047 66 62 52
2.506780 -6.589302 2.023719 16 16 16
2.213707 -6.005286 1.223924 117 113 103
2.266584 -5.763075 1.475918 75 77 73
2.246192 -5.803245 1.528376 90 92 86
2.214029 -5.731854 1.020421 98 95 85
2.226623 -5.739446 1.719600 81 81 77
2.252327 -5.778843 1.660261 69 71 65
2.357131 -6.221346 0.825103 97 96 87
2.582367 -6.288126 1.027179 22 17 15
2.273679 -5.847773 1.923552 89 96 94
2.223413 -5.749347 1.372884 63 64 55
2.223307 -5.713098 1.342920 93 95 85
2.196531 -5.755147 1.592966 28 29 23
2.207564 -5.670002 1.525591 79 80 79
2.233196 -5.715654 1.632158 27 28 23
2.204193 -5.661273 1.344162 117 118 113
2.218626 -5.750687 1.255896 33 35 32
2.190341 -5.760341 1.485386 25 28 25
2.213637 -5.738458 1.068527 110 109 102
2.237309 -5.638919 1.675693 36 40 37
2.267879 -5.779573 1.145148 113 112 109
2.255334 -5.674639 1.763771 93 94 86
2.284745 -5.838470 1.807315 97 98 92
2.458214 -6.281010 0.710832 39 38 32
2.546435 -6.296902 0.776596 11 11 10
2.655745 -6.374042 0.679620 29 32 34
2.421300 -6.205078 1.142017 69 66 59
2.267057 -6.172719 1.785922 87 88 78
2.439549 -6.240522 1.452182 62 58 51
2.431402 -6.212741 1.596920 63 63 67
2.478012 -6.310153 1.499198 40 38 34
2.261167 -6.125232 1.662392 84 79 68
2.264400 -5.928161 1.587016 98 98 89
2.460222 -6.172285 1.553476 49 47 45
2.459354 -6.296827 1.362576 50 47 40
2.466747 -6.238985 1.742718 62 66 75
2.441948 -6.375313 1.887426 58 63 70
2.439626 -6.494120 2.022264 54 53 51
2.166935 -5.762073 1.679261 94 93 83
2.259207 -6.229903 1.924442 75 77 72
2.200504 -6.056705 1.155593 116 112 96
2.241744 -6.086523 1.209278 97 96 82
2.439244 -6.271747 0.888542 60 55 47
2.437028 -6.183339 1.264919 63 56 50
2.577924 -6.293137 1.181129 26 22 17
2.260710 -6.097205 1.506729 104 102 92
2.427810 -6.268369 1.790435 75 78 79
2.457232 -6.275229 1.242173 61 57 51
2.406307 -6.231001 1.056723 85 84 76
2.544474 -6.418490 1.799333 34 38 47
2.490680 -6.450534 1.880884 55 63 75
2.528155 -6.521909 1.958800 37 45 58
2.451406 -6.422176 1.978158 76 75 72
2.245512 -5.806432 1.850406 90 94 93
2.227752 -5.968940 1.936065 101 96 79
2.552028 -6.294223 1.322653 23 18 16
2.498544 -6.405328 1.752673 22 24 29
2.403897 -6.353010 2.003904 76 77 73
2.515476 -6.341110 1.325562 12 12 9
2.275141 -5.821308 1.369781 105 107 100
2.482040 -6.335171 1.634266 21 22 21
2.278120 -5.999614 1.747447 96 95 85
2.251719 -6.047117 1.410981 100 99 92
2.530384 -6.572294 1.877493 23 24 27
2.303282 -5.993156 1.280192 106 104 96
2.271291 -5.894471 1.236282 122 118 108
2.269491 -5.933039 1.846474 97 98 92
2.249572 -6.025089 1.333736 104 100 91
-3.915226 -4.492685 1.101553 198 202 196
-4.560855 -4.492664 0.743881 62 50 53
-3.887230 -4.548026 1.205317 84 95 83
-3.641939 -4.860135 1.254602 125 132 131
-4.466131 -4.942959 1.134958 66 77 82
-4.492481 -4.476789 0.979051 176 167 171
-4.622556 -4.585062 0.993587 152 77 83
-4.218293 -4.405454 0.725467 160 148 143
-4.113141 -4.951600 1.322283 184 195 199
-4.035215 -4.708802 1.309619 61 64 61
-3.975540 -4.982790 1.405768 54 56 52
-4.509151 -5.106416 0.553933 33 34 32
-3.555978 -4.515492 1.080902 60 72 68
-4.519762 -4.546018 0.982718 170 80 85
-4.583028 -4.482536 0.666846 176 178 171
-4.249535 -4.802852 1.294811 203 205 202
-4.056563 -5.285103 1.316567 115 120 116
-4.223534 -5.086698 1.297081 85 92 98
-3.980487 -4.442722 1.006095 93 103 93
-3.698157 -4.547593 1.181543 36 38 40
-3.902442 -4.751717 1.298089 240 248 243
-4.297433 -5.429624 1.213889 57 57 55
-4.182768 -5.214385 1.333651 175 186 189
-3.860033 -5.447644 1.197832 111 115 124
-3.816525 -5.312656 1.347077 185 194 195
-4.505540 -5.569093 0.679105 112 117 115
-4.625691 -5.503434 0.767573 78 79 81
-4.610885 -5.484186 0.641143 147 151 149
-4.331542 -4.927632 0.473798 20 20 18
-4.126491 -5.312809 1.168500 56 73 84
-3.799307 -5.397588 1.149633 59 66 64
-3.981251 -5.417905 1.105111 40 46 44
-3.905578 -5.444892 1.094275 63 64 59
-4.132888 -5.423689 1.195719 29 32 23
-4.600995 -5.470295 0.688158 144 143 141
-4.240224 -4.654570 1.299256 188 198 198
-4.293640 -4.855099 1.313198 63 62 64
-4.665611 -5.103853 0.856820 157 166 174
-4.636840 -5.183103 0.962685 45 46 46
-4.456812 -5.577348 0.880127 129 119 115
-4.426398 -5.202314 1.131404 83 106 122
-4.290855 -5.130368 1.138101 63 79 81
-4.322979 -5.275370 1.159393 90 115 133
-4.645879 -5.018334 0.932287 156 166 167
-4.643968 -5.045164 1.102839 37 38 36
-4.661611 -5.288173 0.788116 153 160 164
-4.638840 -5.180452 1.085036 54 61 68
-4.669167 -5.130845 0.781758 144 160 170
-4.625462 -5.397980 0.779815 139 138 147
-4.686218 -5.353753 0.655788 152 160 160
-4.282373 -5.110929 1.326944 131 149 156
-4.256365 -5.334683 1.300044 89 93 104
-4.546834 -5.528252 0.855532 87 19 13
-4.078645 -5.357049 1.250073 47 48 43
-4.546813 -5.463148 0.949340 126 64 60
-4.548074 -5.502305 1.007308 103 44 42
-4.265028 -5.036076 1.195341 117 136 144
-4.610695 -5.367860 1.057265 59 66 70
-4.672818 -4.974403 0.983340 164 177 182
-4.662882 -5.151860 0.996288 177 186 200
-4.630107 -5.282022 1.077441 189 198 203
-4.652422 -5.231016 0.870678 155 165 169
-4.718354 -5.222622 0.744699 167 177 179
-4.686804 -5.375597 0.717823 164 170 168
-4.612067 -5.359338 0.896812 168 178 180
-4.642291 -5.288922 0.829318 174 181 183
-4.480954 -5.373684 1.178089 59 63 66
-4.597867 -5.436255 0.999521 146 36 33
-4.504862 -5.564374 0.779121 41 31 28
-4.561218 -5.443983 1.079397 172 180 180
-4.481481 -5.525433 1.043165 147 133 135
-4.398741 -5.484423 1.103675 66 64 58
-4.612001 -5.453120 0.843967 94 34 29
-4.527015 -5.551070 0.627181 111 106 104
-4.557794 -5.304532 1.116091 52 54 56
-4.690260 -5.313890 0.717413 179 188 190
-4.641974 -5.283628 0.970563 148 157 162
-4.450342 -5.448415 1.143142 136 141 142
-4.341477 -5.403857 1.236037 148 154 156
-4.383010 -5.338544 1.234057 67 79 87
-4.412321 -5.582002 0.680280 108 104 101
-4.384906 -5.580206 0.738658 121 113 108
-4.061927 -5.252994 1.142689 76 95 92
-4.530058 -5.519277 0.907321 104 29 29
-4.507528 -5.429844 1.035102 125 70 73
-4.180237 -5.281935 1.218835 107 124 128
-4.267499 -5.256373 1.114821 50 60 63
-4.046228 -5.313667 1.357826 59 60 60
-4.304139 -5.589173 0.614687 112 108 101
-4.068830 -5.380406 1.318718 158 165 166
-4.385696 -5.579572 0.858917 130 126 122
-3.975145 -5.627539 0.823916 148 146 148
-3.884337 -5.570433 0.984635 130 138 138
-3.813745 -5.588607 0.942629 85 87 87
-4.091857 -5.591220 0.935157 124 116 112
-4.021581 -5.537496 1.047162 156 163 164
-3.923837 -5.399482 1.326083 143 153 165
-3.807440 -5.369573 1.320469 142 144 151
-4.351761 -5.558134 1.020273 157 157 156
-4.245665 -5.589295 0.651634 111 105 101
-4.146271 -5.568650 1.028445 121 112 108
-3.748083 -5.392255 1.311858 148 156 160
-4.093442 -5.606283 0.828573 130 128 129
-3.929069 -5.530618 1.026179 148 153 155
-3.766857 -5.443905 1.189914 71 76 67
-4.285575 -5.593213 0.701731 112 110 108
-4.664372 -4.829753 0.832951 138 147 143
-4.636538 -4.993567 1.080593 139 155 175
-4.656137 -4.832512 1.053791 151 161 176
-4.524372 -4.462228 0.802692 205 204 202
-4.679419 -4.937739 0.779587 151 160 163
-4.331996 -4.927709 1.275127 52 42 42
-4.643404 -4.826967 0.949146 70 71 76
-4.348406 -4.430609 0.879807 161 163 161
-4.075092 -4.412517 0.949649 171 166 167
-4.548529 -4.605009 1.084404 54 59 60
-4.033572 -4.388821 0.833904 213 215 212
-3.850283 -4.402789 0.746230 73 74 60
-3.816401 -4.507238 1.161455 56 60 55
-4.557504 -4.523472 0.871886 176 176 174
-4.430227 -4.425480 0.762644 169 170 166
-4.686018 -4.771517 0.896967 145 154 153
-3.777137 -4.579534 1.308183 230 236 236
-4.046312 -4.628893 1.318258 82 80 71
-4.330085 -5.064299 1.276395 159 156 161
-4.057400 -5.007695 1.313568 118 130 130
-4.268570 -4.534901 1.124891 118 144 140
-4.669939 -4.936932 0.852361 113 118 127
-4.668745 -4.758819 0.765529 73 81 106
-4.673549 -4.611513 0.744947 91 86 88
-4.569539 -4.499552 0.947319 135 37 34
-4.475047 -4.588429 1.152952 194 197 190
-4.626581 -4.585946 0.914948 172 178 181
-4.620867 -4.657506 0.759491 164 166 169
-4.646263 -4.696465 1.037517 177 184 185
-4.593292 -4.569922 1.065689 175 182 180
-3.891768 -4.567014 1.281778 227 233 229
-4.633951 -4.573504 0.749845 158 164 164
-4.723531 -4.768444 0.660068 142 147 144
-3.981369 -4.908272 1.352640 98 53 12
-4.168463 -4.418455 0.914292 181 166 166
-4.219470 -5.044108 1.318217 123 132 138
-4.249944 -4.800755 0.413613 51 48 41
-4.307363 -4.973256 1.209063 84 104 109
-3.875008 -4.899444 1.277311 237 243 239
-4.361572 -4.574726 1.199960 113 115 102
-3.717694 -4.635966 1.264686 85 87 85
-4.491931 -5.125779 1.112175 51 66 76
-4.302902 -4.822849 1.237672 65 68 63
-4.093505 -4.570045 1.264796 85 88 83
-4.649917 -4.693985 0.857902 167 173 173
-3.882061 -5.606726 0.823033 117 116 114
-4.059275 -5.178352 1.154981 71 84 89
-4.017698 -5.030603 1.248945 59 66 62
-3.934270 -5.374985 1.283509 160 167 168
-3.986777 -5.002248 1.332791 198 209 211
-4.157286 -5.626027 0.732829 25 20 18
-4.636220 -5.134107 1.101534 35 37 37
-4.697649 -5.194479 0.682782 153 163 163
-4.253592 -5.585785 0.907373 119 110 105
-4.731297 -5.125055 0.637243 156 165 165
-4.612085 -5.428760 0.931215 176 176 178
-4.144776 -5.297305 1.343695 113 119 119
-4.723524 -5.020191 0.700564 154 161 164
-3.786530 -5.512529 1.082465 140 148 146
-3.224360 -4.529457 1.200078 121 115 113
-3.436329 -4.816893 1.295300 163 175 188
-3.771652 -5.380342 1.255720 172 171 167
-3.450716 -4.615295 1.208786 105 106 102
-3.595375 -4.452229 0.916479 164 167 164
-3.457448 -4.991358 1.290243 176 183 185
-3.209564 -4.452121 1.077265 116 129 132
-2.494250 -4.748284 0.911667 63 77 80
-2.360479 -4.347321 0.772513 96 98 101
-3.042377 -4.437505 1.013677 78 81 78
-3.470534 -4.402429 0.687855 111 119 124
-3.048112 -4.685423 1.260686 101 98 95
-3.031571 -4.562699 1.254052 133 133 134
-2.946292 -5.334575 1.260386 85 89 84
-2.713550 -5.566000 0.895331 101 106 106
-2.625237 -5.335499 1.103019 106 109 96
-2.819760 -5.299794 1.072567 55 70 64
-3.568599 -5.077187 1.231598 41 38 36
-3.155163 -5.453724 1.163080 78 93 87
-2.946022 -5.002264 1.215357 44 42 39
-3.681430 -5.618229 0.745916 108 113 111
-3.284567 -4.758228 1.373543 59 80 131
-2.679690 -5.245940 1.100264 95 98 94
-2.449204 -5.146817 0.985427 63 77 80
-3.687010 -5.448858 1.105993 44 50 50
-3.287168 -5.315537 1.348414 36 32 35
-3.363869 -4.940143 1.464708 155 145 142
-3.287797 -4.489117 1.077665 102 111 96
-3.063780 -5.459882 1.093110 36 41 39
-3.094406 -4.357910 0.885385 170 171 170
-3.347788 -5.369136 1.432874 76 88 114
-2.514513 -5.517117 0.959135 145 153 154
-3.503957 -5.599578 0.736370 114 116 116
-2.881938 -4.500530 1.100522 120 133 119
-3.170744 -4.358559 0.845433 103 100 112
-3.409349 -5.008722 1.405114 141 146 145
-3.367230 -5.067319 1.421548 88 116 161
-2.468871 -4.333053 0.734355 125 126 125
-3.381465 -5.305515 1.163594 38 39 38
-3.262824 -4.650132 1.360329 130 132 129
-3.347026 -5.035436 1.338394 66 71 68
-3.542717 -5.471121 1.036596 144 154 155
-3.667089 -5.365257 1.327098 104 109 107
-3.668952 -5.608918 0.975547 126 131 131
-3.118621 -4.936306 1.358685 44 43 39
-3.349075 -5.614542 0.732209 45 48 42
-3.277715 -4.539260 1.395044 67 81 114
-3.682852 -5.599255 0.913679 104 108 110
-3.513910 -5.582137 0.945559 141 147 148
-3.235323 -5.407096 1.091462 37 42 38
-3.197528 -5.598682 0.816890 53 59 74
-3.252927 -5.440382 1.030341 131 139 140
-3.755330 -5.575163 1.018253 130 137 137
-3.435088 -5.619439 0.732081 40 43 40
-3.334773 -5.260595 1.270487 147 156 161
-3.610281 -5.303462 1.136937 70 82 79
-3.415469 -4.876238 1.409322 162 170 168
-3.354444 -4.964058 1.363142 53 56 56
-3.370469 -4.629563 1.282212 118 114 112
-3.362950 -4.873891 1.406783 38 74 139
-2.698775 -4.862032 1.065353 149 158 157
-3.225948 -4.530933 1.244838 79 59 46
-3.167931 -4.668695 1.291253 91 91 89
-3.113191 -4.972376 1.465599 149 158 149
-3.065638 -4.548456 1.217466 103 92 88
-3.106764 -4.905945 1.430585 74 82 102
-3.354182 -4.620648 1.345555 56 52 50
-3.437051 -5.144349 1.249655 30 32 32
-2.796632 -5.107247 1.122092 51 66 60
-3.215516 -5.355869 1.317699 115 125 122
-3.046598 -5.329217 1.199328 44 43 39
-2.866005 -4.493594 1.199986 178 177 173
-2.861098 -4.754431 1.172128 131 129 124
-2.816980 -4.564917 1.117479 83 61 51
-2.581068 -4.458525 0.794242 60 50 51
-2.411819 -4.499287 0.802292 110 110 116
-3.265101 -5.418521 1.235346 50 48 47
-2.605201 -5.399719 1.049530 54 62 55
-2.634379 -5.437345 1.133844 83 65 59
-2.526663 -5.487399 1.019681 97 103 106
-3.182167 -4.972686 1.389775 44 43 39
-3.232720 -4.927067 1.406446 84 97 122
-2.926782 -4.531154 1.224823 207 212 206
-3.367809 -4.586065 1.404014 67 90 140
-3.254992 -4.401280 0.856477 170 176 174
-2.846713 -4.402691 0.824685 130 121 122
-2.728500 -4.594543 0.988583 236 241 235
-2.511824 -4.338893 0.658747 123 124 129
-3.322584 -5.178434 1.368677 54 65 75
-3.253726 -5.472595 1.151834 126 132 141
-3.365223 -4.685223 1.400004 57 80 129
-3.276134 -4.586340 1.326587 204 191 172
-3.098055 -5.516479 1.030633 108 116 109
-3.183757 -5.564109 0.948571 130 135 134
-2.822352 -5.382333 1.238621 115 122 121
-3.324300 -5.583506 0.938672 120 126 126
-3.350814 -5.220555 1.418189 37 60 114
-3.296819 -5.333877 1.182181 50 53 52
-3.340897 -4.784832 1.364302 30 42 90
-2.913002 -5.373679 1.235414 110 116 114
-2.604069 -5.478520 1.078174 155 165 164
-2.702551 -5.365799 1.125903 70 69 61
-2.727791 -5.426570 1.144850 51 53 57
-2.514608 -5.584754 0.684133 119 127 134
-3.250003 -5.525952 0.999106 36 37 40
-3.095282 -5.564032 0.962034 47 44 48
-2.975031 -5.610113 0.678598 28 28 28
-3.069484 -5.390079 1.241600 64 74 71
-3.075749 -5.598684 0.728153 109 113 111
-2.864598 -5.600884 0.692708 49 55 65
-2.942023 -5.579622 0.912996 129 136 135
-2.550566 -5.568360 0.888464 109 112 117
-2.429567 -5.571166 0.842415 119 122 122
-2.734324 -5.621633 0.678549 29 30 29
-2.701344 -5.379623 0.993389 47 57 56
-2.712293 -5.331054 1.066234 53 62 59
-2.616825 -5.520396 0.961875 109 116 116
-2.665773 -5.471681 0.924712 93 100 101
-2.880278 -5.459010 1.000838 147 152 154
-2.608886 -5.448502 0.979324 33 39 37
-2.677639 -5.591685 0.705380 41 42 42
-2.414766 -5.475480 0.989415 154 162 163
-2.350977 -5.594494 0.847721 134 137 137
-3.268937 -5.358267 1.425465 35 57 92
-3.248664 -5.207150 1.387962 71 91 128
-3.347666 -5.298220 1.390866 31 41 74
-2.163984 -5.425036 0.906189 72 91 121
-1.788467 -5.501252 0.710865 112 121 122
-2.150816 -4.503161 0.754790 67 69 71
-1.983529 -4.551084 0.689572 45 45 44
-2.263635 -5.453534 0.893993 143 146 146
-2.138979 -5.580774 0.787524 138 127 125
-2.255023 -5.393118 0.931479 149 157 160
-2.234258 -5.551851 0.827752 131 137 136
-2.281230 -4.746157 0.837073 63 77 80
-2.092997 -4.987151 0.811468 112 130 129
-1.926969 -4.332033 0.641849 163 165 161
-1.680064 -4.777043 0.412349 210 213 206
-1.857219 -4.621492 0.583415 203 207 200
-1.703736 -5.155452 0.563770 165 167 162
-2.173622 -4.319443 0.736049 57 58 52
-1.735564 -5.392138 0.723264 95 105 112
-2.023978 -4.342610 0.717260 183 183 180
-1.879041 -5.558457 0.688774 86 92 100
-1.762409 -5.223485 0.692577 113 133 136
-1.869528 -4.931218 0.666076 150 154 150
-1.643663 -5.440141 0.666427 82 94 103
-2.207328 -4.335273 0.653693 43 42 41
-1.669217 -5.438293 0.724985 149 148 134
-2.059869 -4.326515 0.707385 128 123 121
-2.350988 -5.579436 0.786445 122 126 126
-2.022330 -5.352269 0.860755 113 130 145
-2.032243 -5.559326 0.795764 74 90 113
-2.290954 -5.584929 0.691848 108 111 107
-2.103842 -5.562334 0.672405 18 18 17
-1.962779 -5.563027 0.785137 64 84 111
0.456170 -4.296813 0.738140 92 86 81
-0.612579 -5.598598 1.005509 107 113 90
-0.285952 -5.554524 1.965358 187 193 190
-0.268859 -4.331518 0.887190 98 104 99
-0.286074 -4.545452 1.077355 65 63 57
0.334945 -4.696733 0.827018 112 111 108
-0.310092 -4.194993 1.053474 100 106 95
0.122810 -4.418807 0.780957 53 54 54
-0.660067 -5.603578 0.919459 101 85 73
-0.530264 -5.483296 0.681773 114 118 88
-0.520160 -5.586119 0.734576 92 92 78
-0.583757 -5.561619 0.607898 86 104 51
-0.560720 -5.615548 0.873744 154 161 146
-0.057755 -4.347253 0.697806 25 25 25
-0.394215 -4.384753 0.614279 23 29 40
-0.084505 -4.194781 0.751933 54 63 78
-0.033267 -4.411475 0.784972 76 96 107
-0.250071 -4.401768 0.898618 79 94 109
-0.215636 -4.320076 0.701446 35 44 56
-0.247544 -4.607812 1.054806 127 135 134
-0.232977 -4.188084 1.058988 93 101 99
0.444435 -4.601907 0.770047 85 77 74
-0.296256 -4.615994 1.041442 95 116 130
-0.248161 -4.559229 0.977715 52 57 56
-0.363528 -4.323452 0.891892 78 88 93
-0.402024 -4.202705 0.978209 79 82 79
-0.653982 -5.580491 0.964974 72 71 34
-0.592643 -5.541434 0.671867 121 126 97
0.063983 -4.576070 0.765144 39 40 40
-0.012999 -4.596049 0.674585 36 39 39
-0.261291 -4.408582 0.967918 98 97 97
-0.198934 -4.274514 0.863380 67 95 119
0.035099 -4.265682 0.716340 87 88 85
0.229678 -4.075062 0.663257 173 170 156
0.243727 -4.294832 0.747547 152 149 136
-0.228502 -4.508633 0.973801 121 123 119
-0.434254 -4.279995 0.835148 188 198 204
-0.353605 -4.383174 0.939239 125 137 142
-0.333521 -4.547911 1.019966 44 42 47
-0.319390 -4.274433 1.041495 90 99 103
-0.518428 -4.249398 0.679989 145 133 136
-0.373559 -4.249515 0.958824 190 198 201
0.223545 -4.553142 0.814562 77 76 75
-0.439064 -4.361789 0.821423 77 78 85
-0.480962 -4.312901 0.740659 173 184 191
-0.350917 -4.379490 0.866127 33 41 53
-0.339113 -4.327511 0.775622 31 40 51
0.054202 -4.677887 0.684037 67 70 68
-0.312912 -4.459359 0.898039 103 114 110
-0.044050 -4.521949 0.719328 37 39 41
-0.441939 -4.348649 0.699748 27 33 42
0.150051 -5.580283 1.887163 199 204 198
-0.302417 -5.575418 1.838125 130 130 125
-0.054418 -5.608725 1.773696 73 68 54
0.016379 -5.569734 1.840670 133 126 107
-0.187530 -5.622170 1.671810 135 127 107
-0.305291 -4.444013 0.970626 183 186 184
-0.163070 -5.563660 1.880282 205 207 201
-0.176789 -5.576936 1.815591 73 66 51
0.124439 -5.596644 1.797097 73 65 51
0.130945 -5.611998 1.723038 93 90 69
0.200068 -5.574925 1.825865 99 94 74
0.047974 -5.626312 1.241296 52 48 40
0.004663 -5.586850 1.801711 72 63 41
0.224144 -5.532820 2.064536 105 99 81
0.054257 -5.534212 2.109201 179 183 178
0.079095 -5.627196 1.608750 46 40 33
-0.088540 -5.581762 1.938462 187 188 182
-0.236309 -4.527126 0.899726 56 57 59
0.216595 -4.717799 0.663467 65 68 60
0.233689 -4.722209 0.731175 35 34 32
0.287804 -4.764685 0.770154 55 62 31
-0.252245 -4.322002 0.787539 54 74 109
0.126630 -4.622576 0.792748 50 51 52
2.236942 -4.919445 1.130396 111 112 103
2.259922 -5.164036 1.051293 100 97 82
2.252218 -4.920040 1.734854 96 97 86
2.246995 -4.166319 0.774423 59 64 61
2.415291 -4.199443 1.013992 24 25 26
2.157164 -4.443373 0.661574 113 113 108
2.295718 -4.276768 0.824969 29 31 30
2.184518 -5.163149 0.686111 140 144 133
2.206708 -5.422616 0.787599 168 169 157
2.217468 -5.193122 0.852765 124 124 114
2.198353 -4.598222 0.769457 119 118 111
2.238934 -4.818481 1.952528 93 94 85
2.387275 -4.203621 1.360820 16 16 16
2.311825 -4.776647 1.383806 106 105 97
2.208779 -5.416201 0.965802 123 124 115
2.233796 -4.490223 1.086835 117 116 109
2.225998 -4.338488 1.015298 71 76 74
2.274564 -4.729320 1.134965 69 69 65
2.301560 -4.509970 1.366345 77 76 65
2.252718 -4.638496 1.286779 62 58 50
2.260690 -4.791115 1.710457 91 88 78
2.312621 -4.334283 1.686880 51 53 47
2.231880 -4.337257 1.156135 96 100 95
2.299349 -4.328786 1.096835 60 61 54
2.240993 -4.333013 1.347206 66 70 64
2.301175 -4.327793 1.289821 52 54 49
2.340517 -4.584642 1.548478 71 70 60
2.231245 -4.568059 1.115879 70 66 55
2.256602 -4.639984 1.065071 94 94 86
2.250810 -4.791993 1.398245 109 108 102
2.245693 -4.835169 1.375016 113 113 106
2.236141 -4.685286 1.099687 107 108 101
2.280246 -4.277381 1.377988 26 32 32
2.288863 -4.207085 1.676443 22 26 27
2.296363 -4.607460 1.290499 55 53 43
2.331654 -4.565337 1.269573 94 95 89
2.279755 -4.256964 1.216720 23 30 32
2.315072 -4.655537 1.375571 52 49 43
2.292625 -4.505712 1.547500 89 89 81
2.332386 -4.690304 1.459276 101 103 96
2.246481 -4.850108 1.198915 115 116 108
2.219498 -4.463401 1.666594 98 98 90
2.332897 -4.593169 1.437644 52 50 44
2.237631 -4.471837 1.207256 104 108 102
2.239553 -4.809258 1.632758 105 104 95
2.308601 -4.623651 1.501334 57 53 46
2.244275 -4.342031 1.704657 86 88 81
2.328261 -4.778797 1.161776 102 104 97
2.319685 -4.780559 1.502704 78 75 63
2.329010 -4.743686 1.452795 105 105 96
2.301496 -4.340716 0.948888 24 33 33
2.331955 -4.546868 1.177198 83 82 75
2.240713 -4.545451 1.075594 63 54 49
2.238065 -4.468768 1.510973 83 83 69
2.232141 -4.344888 1.538262 56 56 49
2.320787 -4.526690 1.451536 84 84 73
2.252123 -4.635291 1.193281 61 59 50
2.233150 -4.469370 1.331509 106 108 100
2.256901 -4.803558 1.105321 69 67 60
2.330216 -4.700269 1.238956 79 80 76
2.228203 -4.463214 1.762069 92 103 111
2.332270 -4.684550 1.666269 103 101 92
2.330447 -4.749273 1.580005 105 103 94
2.218809 -4.406207 1.240649 106 109 102
2.301628 -4.327231 1.480738 24 28 28
2.354094 -4.561511 1.636397 91 90 80
2.319195 -4.662365 1.576980 59 56 50
2.274148 -4.774937 1.265257 102 104 96
2.334087 -4.781140 1.673537 103 101 90
2.329331 -4.714629 1.346804 103 104 96
2.321129 -4.594802 1.681546 55 55 49
2.288930 -4.264623 1.041264 17 19 20
2.224680 -5.215478 1.083659 129 131 120
2.256091 -5.581625 1.036624 111 105 95
2.250246 -5.262472 1.089523 138 139 131
2.265834 -5.318208 0.999029 129 129 118
2.215394 -4.332400 0.889531 92 98 95
2.294886 -4.228813 1.461468 15 14 13
2.229362 -5.541737 1.298860 104 112 122
2.229374 -4.802552 1.840623 83 81 70
2.306086 -4.262950 1.901226 46 45 39
2.347600 -4.656000 1.991876 69 68 60
2.341741 -4.703197 1.794803 95 95 84
2.370396 -4.570315 2.060854 49 46 37
2.314641 -4.508635 1.845221 91 93 86
2.280812 -4.272608 1.770313 25 29 28
2.330700 -4.619136 1.775898 58 57 51
2.249901 -4.468417 1.915335 84 87 86
2.236544 -5.369105 1.956145 64 50 51
2.229385 -4.332074 2.042705 92 95 87
2.244232 -5.429657 2.013455 49 37 38
2.304719 -4.506173 1.717479 83 86 80
2.259889 -5.144359 2.002719 89 93 91
2.325528 -4.781704 1.946864 70 67 53
2.228833 -5.370975 1.697824 89 88 79
2.314602 -4.505109 2.023046 79 79 69
2.360988 -4.568954 1.864482 89 90 83
2.347253 -4.742968 1.916617 91 91 80
2.241521 -5.219886 1.992894 93 96 94
2.234054 -4.976477 1.956470 93 95 86
2.241119 -5.053678 1.756854 97 97 87
2.264653 -5.031587 1.847922 95 95 82
2.276281 -4.974851 1.806653 98 98 88
2.285695 -4.972845 1.910774 97 96 85
2.337751 -4.665906 1.881163 52 52 44
2.252630 -5.257955 1.708763 97 96 86
2.331168 -4.639502 1.683796 57 59 56
2.211348 -4.405131 1.936026 97 100 94
2.252371 -4.248658 1.934037 93 95 88
2.250197 -5.247611 1.838988 97 96 85
2.202960 -5.001803 1.270135 58 59 47
2.224718 -5.440326 1.292703 98 108 117
2.223441 -5.562108 1.695416 83 84 78
2.238018 -5.445845 1.538264 58 68 73
2.171426 -4.965329 1.668759 40 39 38
2.244469 -5.335776 1.535251 91 97 103
2.228391 -5.058255 1.677487 39 39 32
2.221100 -5.020998 1.567015 95 95 87
2.234537 -5.132242 1.672650 28 30 28
2.246409 -4.920117 1.639411 56 56 47
2.260550 -4.908875 1.496144 97 97 88
2.224329 -5.410964 1.147269 44 49 50
2.208728 -4.980669 1.466383 64 67 63
2.240223 -5.211483 1.546791 96 95 85
2.207436 -4.934682 1.531363 31 33 27
2.244642 -5.125710 1.560807 110 111 101
2.235985 -5.460125 1.685732 29 28 26
2.222415 -4.942965 1.232875 106 107 99
2.242067 -5.619518 1.261294 102 110 118
2.225183 -5.294913 1.108430 102 110 122
2.229534 -5.062221 1.174301 97 106 115
2.231905 -5.106469 1.133300 101 111 120
2.235448 -5.165272 1.458411 99 105 113
2.232965 -4.990786 1.723402 90 90 81
2.226323 -5.212797 1.204413 102 111 122
2.222412 -5.164522 1.356217 99 107 115
2.244464 -5.631638 1.519913 96 104 112
2.232348 -5.254674 1.379039 103 110 119
2.222255 -4.938405 1.058170 109 108 98
2.231205 -5.252246 1.660202 32 35 28
2.227236 -5.271559 1.584582 113 111 103
2.231445 -5.422585 1.620762 85 86 82
2.196991 -5.029653 1.112995 117 117 108
2.215427 -4.934715 1.381908 36 38 31
2.220051 -4.931568 1.609731 24 26 23
2.238366 -4.808576 1.504066 106 108 100
2.226378 -5.409915 1.087347 106 112 121
2.237693 -5.362574 1.350179 110 119 127
2.279686 -5.333355 1.734970 94 93 83
2.198226 -5.036404 1.049263 111 110 98
2.242053 -5.583443 1.393415 79 87 93
2.252952 -5.375639 1.793230 87 90 86
2.242448 -5.569172 1.551231 110 109 103
2.250058 -4.887285 1.311087 117 119 111
2.221268 -5.518010 0.978692 113 115 109
2.234487 -5.482548 1.039648 78 71 68
2.206428 -5.346612 0.900418 151 153 141
2.277556 -5.356924 1.053533 133 130 120
2.227294 -5.527644 1.110420 104 105 110
2.227971 -5.049842 1.366026 95 106 117
2.222150 -5.623632 1.164962 109 114 123
2.302362 -4.335859 0.861694 20 26 27
2.238338 -4.353343 0.763458 72 72 66
2.238825 -4.365251 0.835921 79 80 75
2.302871 -4.318034 0.771399 20 26 27
2.240382 -4.382382 0.640010 105 104 103
-0.178753 -4.192514 0.907675 53 63 77
0.399953 -3.985046 0.750383 92 91 85
-0.232791 -3.801607 1.030050 82 83 79
-0.264681 -3.657543 0.984053 42 60 92
-0.216750 -3.622503 0.977338 62 76 96
-0.158062 -3.654557 0.755703 85 100 118
-0.340160 -4.168292 0.885224 130 126 129
-0.155593 -3.626748 0.841355 55 67 85
-0.299316 -4.089405 0.826901 100 101 96
0.195888 -3.785368 0.679984 24 27 29
-0.248105 -4.070228 0.850187 94 102 94
-0.193026 -3.749577 0.855250 101 110 115
-0.265184 -3.643492 0.744190 110 112 109
-0.301431 -4.184839 1.103724 81 91 97
0.262571 -3.945201 0.706315 86 100 95
0.275973 -3.910591 0.759947 44 45 45
-0.507805 -4.220429 0.738602 130 138 149
-0.329365 -4.072525 1.020723 112 117 121
0.014283 -3.937572 0.702739 99 101 100
-0.304060 -3.574600 0.829321 64 66 75
-0.282469 -3.662695 0.862900 97 102 102
-0.338329 -3.344934 0.808769 102 112 113
-0.184695 -3.967037 0.707937 91 90 87
-0.252623 -4.082585 1.078824 85 97 105
-0.270681 -4.176417 1.222796 65 87 109
-0.269704 -3.760048 0.969899 89 89 90
-0.263205 -4.114383 1.217900 140 164 174
-0.407439 -4.129202 0.643623 76 77 81
-0.152342 -3.801493 0.927235 81 83 84
-0.493977 -4.166392 0.733791 144 142 145
-0.228208 -3.464316 1.052136 75 92 112
-0.484950 -3.444455 0.646788 129 137 139
-0.459607 -3.468631 0.717345 165 177 181
-0.387752 -4.210248 0.890350 148 146 156
-0.401074 -3.492658 0.793718 146 146 148
-0.326394 -3.455001 0.895175 131 131 135
-0.343362 -4.024328 0.629670 109 108 109
-0.350849 -3.508644 0.858886 140 148 157
-0.404150 -3.553480 0.748668 135 152 171
-0.412337 -4.139513 0.819626 129 114 116
-0.337908 -3.576107 0.888833 161 171 175
-0.318363 -3.491325 0.980360 148 154 160
-0.257641 -3.670360 0.943563 142 151 155
-0.395676 -3.421846 0.823030 147 139 145
-0.170351 -3.484640 0.893680 93 101 103
-0.232520 -3.826069 0.941998 136 147 153
-0.263971 -3.421240 1.042825 166 172 164
-0.293126 -3.381039 0.992769 87 88 102
-0.230959 -3.690721 0.887883 49 54 56
0.131627 -3.901895 0.687645 65 66 66
0.101191 -3.837216 0.695714 23 24 23
0.022703 -3.791686 0.650556 25 27 31
-0.230979 -3.456031 0.908069 96 100 97
-0.300812 -4.144209 1.027907 106 109 121
-0.323456 -4.138349 1.174047 86 93 99
-0.264165 -3.708534 0.808447 93 104 112
0.365823 -3.901959 0.781623 104 106 107
0.435889 -3.858095 0.710552 64 64 61
-0.239458 -3.431812 1.157744 50 70 97
-0.232047 -3.365237 0.863569 110 118 116
-0.424942 -4.086402 0.762501 152 113 62
-0.171118 -4.079043 0.853341 105 108 104
0.331198 -4.054923 0.738844 78 78 72
2.295520 -3.865000 1.852280 29 33 37
2.317593 -3.825463 2.026237 16 19 17
2.223525 -3.841889 0.811316 29 32 31
2.349328 -3.400512 1.044728 20 19 16
2.292098 -3.409754 0.995833 21 23 21
2.371888 -3.483944 0.963732 38 29 24
2.688051 -4.015246 1.077187 52 33 25
2.401529 -3.607159 0.901824 21 23 21
2.440413 -3.962390 0.912744 34 33 33
2.666750 -3.753929 0.950802 38 27 24
2.559950 -3.753738 0.940427 42 27 22
2.336088 -3.871873 1.361674 10 11 12
2.291962 -3.607899 0.786779 23 28 26
2.677417 -4.132927 1.087197 44 26 20
2.317092 -3.752278 0.863638 26 25 24
2.701364 -3.554125 1.091934 26 24 23
2.721386 -4.098672 1.298590 40 21 21
2.405577 -3.882923 1.408612 13 13 11
2.660332 -3.525992 1.175496 29 28 27
2.441417 -3.554485 1.452928 12 14 14
2.687221 -3.932948 1.071540 44 32 24
2.711998 -3.904804 1.299681 34 17 14
2.645172 -3.512766 1.428117 31 29 27
2.613285 -4.103786 1.387773 52 24 23
2.405998 -4.041191 1.439005 15 15 11
2.462502 -3.411830 0.994084 36 30 26
2.430443 -3.714461 1.431382 18 19 20
2.325147 -3.486533 1.665083 18 22 21
2.552809 -3.586919 0.986737 35 27 26
2.734081 -3.917144 1.401510 16 14 13
2.291913 -3.624758 0.766548 108 106 99
2.656314 -4.117994 1.215284 30 28 26
2.626608 -3.811442 0.983747 26 27 24
2.306334 -3.481835 0.880546 24 22 21
2.578267 -4.155834 1.086712 23 24 23
2.323717 -3.769159 1.572818 18 21 20
2.562234 -3.923245 1.422334 23 17 17
2.326353 -3.697227 1.485569 17 16 16
2.682237 -3.569964 1.344711 27 24 21
2.310567 -3.446372 1.478623 26 29 30
2.680641 -4.022829 1.205592 72 51 50
2.298453 -3.790231 1.432445 18 19 18
2.303983 -4.206096 1.560778 39 42 40
2.292837 -4.263656 1.628653 25 28 26
2.339633 -4.025169 1.658826 29 35 41
2.315002 -4.136708 1.623063 22 23 22
2.452493 -4.115581 0.963025 23 25 25
2.676407 -3.628145 1.406506 39 37 33
2.734152 -3.709679 1.392273 27 23 20
2.285424 -3.881476 1.354142 22 26 27
2.325622 -3.665998 0.835180 21 26 24
2.685847 -3.988670 1.338151 49 38 38
2.740465 -3.662391 1.231145 32 31 30
2.325624 -4.045503 1.478591 11 11 11
2.305352 -3.364900 1.307070 21 24 23
2.311319 -4.149410 1.478061 26 26 26
2.303596 -3.952357 1.626451 21 24 22
2.552216 -4.052465 1.429648 22 16 17
2.692322 -3.425583 1.222686 35 34 31
2.700340 -3.444063 1.315987 25 21 18
2.317681 -3.721169 1.652063 40 46 45
2.332363 -3.606909 1.656546 19 23 22
2.321466 -3.983368 1.567260 73 82 80
2.692532 -3.415467 1.439869 47 40 35
2.325124 -3.518141 1.605587 19 22 23
2.701247 -4.063503 1.253602 48 24 24
2.299718 -3.825862 1.619381 23 29 29
2.638105 -3.443550 1.037343 30 25 23
2.299387 -3.815377 1.205400 30 35 38
2.707531 -4.072595 1.404055 49 33 33
2.677522 -3.394788 1.112826 30 27 25
2.433747 -3.379887 1.438917 17 21 22
2.293305 -3.448792 1.609670 18 24 25
2.341265 -3.460404 1.733757 15 19 19
2.284821 -3.447451 0.792498 34 38 36
2.305657 -3.363818 0.833453 25 25 22
2.511417 -4.127579 1.392371 15 15 14
2.297636 -3.914233 1.467085 12 13 10
2.287532 -3.881874 1.192126 17 24 25
2.349027 -3.797362 1.345752 15 15 21
2.699540 -3.980022 1.421154 29 18 14
2.383277 -3.457947 1.454404 37 53 70
2.706746 -4.015189 1.151958 38 27 25
2.306390 -3.425011 1.076209 20 24 24
2.323930 -3.599738 1.762871 36 39 39
2.341706 -3.785513 1.872300 23 24 22
2.307850 -4.062460 1.780213 27 31 38
2.310477 -4.123812 2.019877 19 20 20
2.320142 -3.440881 1.988263 16 20 20
2.330235 -3.619184 1.903407 27 28 28
2.297097 -3.865467 1.735826 20 23 21
2.332146 -3.641559 1.983284 29 32 32
2.313232 -3.403532 1.883261 19 21 20
2.302833 -3.773702 1.694989 23 23 20
2.298998 -3.871248 1.994774 24 31 37
2.267455 -4.265790 2.022035 89 90 79
2.313614 -3.431182 1.818815 18 21 23
2.330651 -3.439162 1.313508 21 26 25
2.299351 -3.386106 1.072745 24 29 29
2.308579 -3.392320 0.968703 21 22 18
0.027324 -9.679949 2.736199 142 137 118
0.202485 -9.437144 2.652353 140 136 114
-0.136355 -9.620508 2.570544 127 122 107
-0.237476 -8.532230 2.901572 205 213 213
-0.217287 -8.531441 3.225924 208 217 216
-0.226118 -8.660779 2.666245 211 218 217
-0.308509 -8.828070 3.232545 92 99 99
-0.200335 -9.875772 3.358278 211 220 219
-0.014193 -9.320897 2.141827 99 115 120
-0.205947 -9.585889 3.330269 211 219 219
-0.221231 -9.158366 2.976578 210 218 217
-0.227398 -9.192451 2.668177 209 218 217
-0.207657 -9.225379 2.780524 205 215 215
0.047294 -9.560357 2.598956 141 137 119
0.047677 -9.509665 2.493556 141 137 119
-0.210889 -9.493883 2.760613 211 219 219
0.088970 -9.390667 2.371406 142 136 120
-0.257620 -8.918303 2.314652 206 212 210
0.270754 -8.676871 2.316255 173 172 158
0.238126 -8.864933 2.069174 42 40 36
0.418432 -8.618660 2.626144 62 62 50
-0.239355 -9.307054 2.366606 209 217 215
0.286397 -8.807552 2.330195 89 96 88
-0.253493 -8.679090 3.415367 201 207 205
-0.243446 -8.884524 2.472019 208 216 216
-0.207310 -9.256615 2.664757 207 216 216
-0.216577 -9.216872 2.925366 209 217 216
-0.229138 -9.365808 2.517107 212 220 219
-0.217408 -9.734863 3.064403 212 220 219
-0.220695 -9.522217 2.625935 209 217 216
0.136605 -9.313180 2.305042 117 124 121
0.177070 -9.263962 2.381634 99 97 86
-0.328746 -8.736778 3.398327 87 92 94
-0.276723 -8.679561 3.382226 165 169 166
-0.290033 -8.823079 3.479758 85 95 101
-0.213312 -9.380998 3.295918 214 221 218
-0.219521 -8.809268 3.337095 115 122 124
-0.213109 -8.858208 3.461396 131 141 144
-0.202045 -8.437502 3.429513 211 218 217
-0.217190 -8.577977 3.419378 208 217 216
-0.218609 -8.544204 3.337822 208 216 216
-0.262846 -8.604818 3.372201 202 210 210
-0.210666 -8.503172 3.432377 213 220 219
-0.323634 -8.858427 2.695464 95 95 87
-0.303017 -8.869200 2.956108 142 149 151
-0.319164 -9.055650 2.563019 115 121 126
-0.231023 -8.888214 2.630663 188 192 184
-0.186720 -9.684588 3.434873 212 220 220
-0.191271 -9.587437 3.439409 211 219 219
-0.217040 -9.734981 2.885714 136 139 136
-0.363596 -8.990230 2.560248 88 95 95
-0.302243 -8.961218 2.753155 91 97 97
-0.291036 -9.101268 2.491656 106 113 116
-0.163867 -9.607552 2.642835 100 99 88
-0.139976 -9.784658 2.835736 111 111 106
-0.217166 -9.143319 2.856816 189 197 196
-0.218898 -9.262878 3.108304 210 217 215
-0.217488 -9.277412 3.017765 209 216 216
-0.208910 -9.273880 3.238391 212 219 218
-0.210050 -9.341136 2.940375 206 214 215
-0.203799 -9.422630 2.968395 212 219 218
-0.207452 -9.362082 3.116825 209 217 216
-0.199052 -9.428768 3.229019 210 218 217
-0.208258 -9.647674 3.273711 210 218 218
-0.216480 -9.627156 3.006179 211 219 219
-0.206210 -9.734380 3.190897 210 219 219
-0.201473 -9.823388 3.222024 210 219 219
-0.238409 -8.984684 2.944597 199 207 205
-0.221497 -9.381903 2.886110 210 218 219
-0.207258 -9.513541 3.173248 208 217 217
-0.215877 -8.954336 3.153197 211 217 216
-0.206700 -8.993113 3.245433 211 219 217
-0.204369 -9.249452 2.887575 208 216 216
-0.222251 -9.295374 2.728551 211 219 218
-0.215982 -9.496128 2.928287 214 221 219
-0.216526 -9.503079 2.816687 209 217 216
-0.213062 -9.430546 3.178702 209 217 217
-0.201162 -9.521172 3.022989 208 217 216
-0.199259 -9.618284 3.175315 210 219 218
-0.218871 -9.348877 2.694322 211 220 219
-0.207566 -9.556381 3.117633 208 217 218
-0.210709 -9.535886 3.251232 207 215 215
-0.197781 -9.177558 2.583504 207 215 213
-0.298484 -8.992505 2.645620 89 95 97
0.298156 -9.573977 2.826211 140 136 114
-0.203961 -9.460391 3.088873 208 217 217
-0.208263 -9.367073 2.821035 208 216 216
-0.205282 -9.006711 3.284678 209 217 217
-0.138155 -9.735870 2.737825 106 103 92
-0.237503 -9.008412 2.685868 206 215 215
-0.194630 -9.719069 3.279926 209 218 217
-0.204017 -8.979665 3.315902 209 217 217
-0.350995 -9.046637 2.056957 140 151 148
-0.354624 -9.047889 2.462511 67 65 63
-0.311075 -9.151437 2.200072 52 56 60
-0.281826 -9.025865 2.335186 150 155 151
-0.294316 -9.022718 2.062792 138 136 128
-0.333118 -9.062508 2.341045 66 66 60
-0.280951 -8.997872 2.121517 175 174 164
-0.328233 -9.121858 2.066685 46 51 59
-0.243444 -8.974638 2.544213 185 188 182
-0.312482 -8.995609 2.458055 130 137 131
0.323373 -8.577878 2.497185 116 119 110
-0.239368 -8.722569 2.356605 204 213 213
-0.227714 -8.736206 2.200775 172 179 177
-0.249596 -8.806058 2.005687 179 185 184
-0.288934 -8.977643 2.205308 199 205 203
-0.356142 -9.064593 2.218611 125 133 130
-0.280552 -9.026179 2.251003 79 79 79
-0.241086 -9.370356 2.297054 156 160 157
-0.332864 -9.057998 2.158324 76 76 76
-0.298784 -9.118072 2.310494 49 48 47
-0.303604 -9.139043 2.375880 96 101 102
-0.273781 -9.195881 1.931528 118 129 139
-0.237073 -9.146091 2.415663 172 181 182
-0.352791 -9.058063 2.395595 127 131 129
-0.254592 -9.181700 2.298050 160 171 174
-0.175331 -9.498601 2.440562 117 115 104
-0.248965 -9.183461 2.154609 202 211 210
-0.197596 -8.679671 2.371064 201 209 208
-0.218088 -8.777149 2.472694 205 213 213
-0.223587 -9.256693 2.407540 207 214 213
-0.233215 -9.284567 2.471255 207 216 215
0.065194 -8.711165 2.264996 160 163 157
0.093323 -8.782994 2.089501 170 174 170
0.016280 -9.193338 1.999804 99 115 120
-0.012755 -8.646622 2.392494 152 156 152
-0.242960 -8.877898 2.164659 188 197 199
-0.224624 -8.874194 2.263999 188 197 200
-0.121996 -9.579891 2.469645 121 118 107
0.205217 -9.057721 2.232511 50 53 48
0.204984 -8.533247 2.644408 110 110 101
-0.114902 -9.409228 2.210716 114 127 140
0.204024 -8.808411 2.118979 175 179 172
0.262089 -8.653035 2.382223 153 153 146
-0.055658 -8.714041 2.250528 168 171 164
-0.109992 -8.620241 2.433027 154 156 150
-0.181086 -8.705594 2.253194 170 173 168
-0.334275 -9.179923 1.950468 108 120 131
-0.106001 -8.676484 2.351083 161 164 158
-0.100403 -8.783132 2.108584 184 187 181
0.115070 -8.654058 2.389377 175 176 167
0.130661 -8.731709 2.190090 174 177 170
0.017970 -8.769132 2.165438 170 174 167
0.252210 -8.851968 2.173858 69 74 67
-0.206130 -8.495364 3.306945 209 217 217
-0.227434 -8.929831 3.376178 206 215 215
-0.205255 -9.077362 3.409605 209 217 216
-0.207838 -9.079295 3.330868 209 217 216
-0.202856 -9.183654 3.414565 212 219 218
-0.206180 -9.218673 3.371086 213 220 220
-0.199037 -9.375197 3.452095 213 221 220
-0.195439 -9.185588 3.309948 210 218 218
-0.203162 -9.386060 3.381005 213 221 220
-0.201011 -9.291296 3.339559 211 219 219
0.249147 -8.754776 2.162512 79 78 70
-0.238859 -9.276582 2.232581 194 203 203
-0.359876 -8.897548 2.726307 63 62 60
-0.240276 -9.069231 2.556354 118 126 131
-0.220493 -9.053130 3.079277 212 220 218
0.345098 -8.731051 2.501124 72 70 57
-0.237997 -9.399340 2.179492 50 63 82
0.182967 -8.754710 2.211737 175 176 166
0.352325 -8.474250 2.634762 86 86 77
0.092009 -8.558278 2.553649 137 138 132
0.134984 -8.599640 2.484916 143 144 137
0.241283 -8.532970 2.574098 149 150 142
-0.173947 -9.440604 2.270921 113 113 107
-0.231632 -9.006213 2.440902 149 142 131
-0.248183 -9.043986 2.372298 118 106 88
0.290373 -9.773589 2.944203 143 133 111
-0.317678 -8.751355 2.911151 73 74 66
-0.275420 -8.705169 3.188646 157 159 153
-0.232621 -8.693468 3.318196 155 152 143
-0.285210 -8.788800 3.259376 107 115 117
-0.228734 -8.736638 2.981336 189 188 177
-0.223228 -8.753884 2.910348 195 201 196
-0.227760 -8.843010 2.727360 198 199 192
-0.305625 -8.795647 2.813722 72 67 61
-0.317382 -8.749666 3.089924 74 73 74
-0.278611 -8.842193 2.565760 199 203 200
-0.298686 -8.809876 2.999582 68 68 70
-0.280179 -8.821141 3.087898 114 115 112
-0.221190 -8.803707 3.249228 155 165 169
-0.362955 -8.797425 2.922571 60 60 57
-0.221428 -8.582618 2.987933 208 216 215
-0.262922 -8.694596 3.090669 197 203 201
-0.251086 -8.660428 3.205188 184 189 187
-0.316712 -8.863496 2.768822 62 61 60
-0.278804 -8.672706 2.809898 207 215 214
-0.235089 -8.531358 2.692612 210 218 217
-0.301424 -8.925947 2.846710 113 118 119
-0.339970 -8.749659 3.045615 73 73 74
-0.282069 -8.823760 3.383226 78 83 84
-0.279658 -8.853168 2.854070 74 72 74
-0.231638 -8.957562 2.699157 129 138 142
-0.229759 -8.905038 2.814361 138 146 150
-0.228338 -8.826437 2.968047 141 150 153
-0.217143 -8.847063 3.177671 153 164 169
-0.354047 -8.762463 2.985293 69 72 72
-0.334891 -8.717510 3.270802 78 81 77
-0.225123 -8.821290 3.076437 126 132 134
-0.221240 -8.928876 2.995115 204 213 212
-0.171459 -8.500530 2.608436 199 208 206
-0.222198 -8.468957 2.910684 212 221 220
-0.234018 -8.561649 2.816495 209 217 216
-0.215701 -8.601201 2.745446 211 219 218
-0.266546 -8.595486 3.244461 212 220 220
-0.230086 -8.624696 2.852877 206 214 213
-0.259565 -8.770536 2.611215 206 215 214
-0.228047 -8.389085 3.312479 213 219 218
-0.219485 -8.594715 3.107342 206 214 214
-0.037418 -8.598511 2.453703 147 150 143
0.090760 -8.534031 2.618145 118 118 108
-0.222351 -8.556094 3.157811 210 218 217
-0.309466 -8.936719 2.584416 65 62 60
-0.207677 -8.894917 3.324019 205 213 213
-0.234052 -8.727460 2.574016 210 219 218
-0.320605 -8.733011 3.153518 76 74 74
-0.048510 -8.508520 2.640807 140 142 133
-0.208758 -8.414070 2.996399 212 220 218
-0.244878 -8.716098 3.056875 150 154 149
-0.178849 -8.602272 2.458144 146 150 146
-0.215282 -8.801633 2.802693 191 198 195
-0.263465 -8.786638 2.725788 204 212 210
-0.243453 -8.655000 2.506497 200 209 206
-0.053311 -8.428301 2.712776 120 120 111
-0.249582 -8.716417 2.880162 180 185 181
0.075298 -8.442607 2.729613 117 117 108
0.598435 -8.650632 2.772818 62 62 50
0.933505 -9.046309 2.963330 95 89 68
1.637114 -9.027148 3.042293 94 82 55
0.387352 -9.101946 2.643779 76 75 62
0.643031 -8.931611 2.832612 86 81 62
1.742777 -8.930370 2.571166 119 106 72
1.742364 -8.930410 2.571125 80 69 45
1.742124 -8.930435 2.571192 94 83 56
1.186555 -9.297060 3.066782 87 83 64
1.787988 -9.323944 3.111674 82 76 55
1.793298 -9.060382 3.019653 78 67 47
1.726145 -9.013915 3.005287 86 78 52
1.742557 -8.930442 2.571148 53 51 42
1.876277 -9.039597 3.038287 99 85 56
0.910779 -8.612841 2.893259 99 93 70
2.116470 -8.889782 2.666048 88 82 61
2.134984 -9.150919 2.707544 73 67 51
1.933101 -9.012836 3.084192 104 92 60
1.873109 -8.463662 2.764371 87 82 64
1.788852 -8.180537 2.845793 86 81 62
2.274334 -9.712309 2.956058 64 60 45
1.982757 -9.552633 3.141482 71 66 49
2.286262 -9.519539 2.799210 69 63 46
2.270213 -9.787568 2.647759 72 65 47
2.076026 -9.051767 2.881383 85 77 56
2.215071 -9.049680 2.541152 82 75 57
2.063640 -8.728506 2.652068 89 82 63
2.085451 -8.105733 2.672999 89 83 65
2.180196 -8.533388 2.443916 92 86 68
2.177619 -8.735081 2.506528 83 76 58
2.241144 -9.084685 2.312860 85 79 62
2.237451 -8.510273 2.211953 101 100 86
2.230447 -9.402017 2.483878 80 73 55
2.298675 -9.502018 2.636233 74 69 52
2.012917 -9.440801 3.095163 73 67 51
2.069020 -9.614836 3.079524 75 67 50
1.977480 -9.065027 2.971976 79 70 50
2.077858 -9.233382 2.896566 82 75 57
2.255404 -8.994135 2.099709 90 90 78
2.242326 -8.860693 2.081947 95 92 75
2.234313 -8.961332 2.067871 90 97 100
2.231737 -9.070283 2.089689 85 87 79
2.243558 -8.586564 2.031686 101 103 93
2.188806 -8.922990 2.518063 87 80 62
2.135163 -8.362767 2.546110 83 80 63
2.245617 -9.387989 2.339100 78 72 55
2.253651 -9.534239 2.487401 74 68 51
2.225294 -8.854812 2.291163 86 80 61
2.230565 -9.379405 2.240762 79 74 59
2.241118 -8.775163 2.083423 49 47 45
1.829533 -9.000487 2.940452 93 85 63
2.186426 -8.879037 2.579245 89 82 62
2.092918 -8.995594 2.689887 74 69 52
2.206277 -9.034542 2.582546 78 72 53
1.958230 -9.005691 3.048589 88 79 55
1.880390 -9.229427 3.108329 113 102 69
2.192369 -9.414632 2.664007 73 67 50
2.116907 -9.554895 2.977986 58 54 39
2.009245 -9.012593 2.796405 90 84 62
2.166277 -9.466740 2.811350 62 56 41
2.233471 -9.473907 2.724436 58 54 39
1.959397 -9.027587 2.867837 75 67 44
2.237741 -9.625938 3.061654 60 55 41
2.222604 -9.521672 2.863527 66 60 44
2.308340 -9.564665 2.912723 61 58 43
2.210362 -9.392584 2.571345 68 63 47
2.166213 -8.974305 2.618941 82 76 57
1.850234 -8.787119 2.826199 90 85 66
2.253329 -9.613018 2.997998 60 56 42
1.832059 -9.646105 3.196957 48 47 37
1.988791 -9.711899 3.198282 72 66 48
2.109229 -9.653761 3.106722 62 56 42
0.293172 -7.271168 3.137269 132 123 100
0.467694 -7.535092 3.156067 92 89 71
0.511907 -8.262955 2.824915 86 76 49
-0.164022 -8.332896 2.810871 118 116 106
0.483779 -8.440671 2.728403 62 62 50
0.436718 -7.011334 3.125682 98 94 76
0.453742 -7.153705 3.153390 90 87 71
0.338617 -7.324381 3.155548 103 97 78
0.504124 -7.314009 3.152865 114 104 80
0.176362 -7.332132 3.259681 87 87 79
0.042619 -7.878767 3.170758 122 118 101
0.241845 -8.053276 3.054466 101 101 88
0.078738 -8.304724 2.881840 106 105 94
-0.226654 -8.164248 3.321044 208 216 214
-0.051791 -8.352299 2.786930 119 116 105
-0.220135 -7.805288 3.425228 167 176 179
-0.123696 -7.749488 3.386481 198 206 206
-0.229151 -8.156258 3.206316 208 217 215
-0.234328 -8.281953 2.994280 208 217 217
-0.231339 -8.399865 3.047671 215 222 220
-0.234439 -8.425831 3.185008 208 216 215
-0.218497 -8.350352 3.159635 209 217 217
-0.337223 -7.997853 3.359107 185 194 196
-0.238086 -7.897304 3.412670 183 193 195
0.170378 -7.159388 3.237104 119 115 100
0.253457 -7.023031 3.071116 147 135 105
-0.082269 -7.940042 3.098773 122 120 100
-0.204629 -7.921568 3.280383 181 191 193
0.221232 -7.542695 3.319317 80 81 75
-0.017894 -7.522449 3.279248 126 120 102
-0.178173 -7.502070 3.314610 123 127 125
-0.181569 -7.844680 3.177486 163 171 171
0.236110 -7.181968 3.123411 97 97 89
-0.264853 -7.130847 3.437775 210 218 217
-0.248830 -7.882992 3.268071 189 198 200
0.420394 -8.355531 2.767852 82 81 67
-0.230644 -8.067969 3.125455 174 183 186
-0.166607 -7.926707 3.122980 157 166 165
-0.190884 -7.194469 3.297960 130 134 130
-0.162087 -7.379290 3.306956 104 104 96
-0.205844 -8.374450 3.472202 212 220 218
0.069301 -7.711313 3.227948 127 121 104
-0.249203 -7.095777 3.323672 134 137 135
-0.170681 -7.278731 3.285961 129 126 109
-0.185244 -7.684992 3.263583 169 176 174
-0.178889 -7.124596 3.239027 105 105 91
-0.220215 -8.165783 3.434039 206 214 213
0.180764 -7.861505 3.192102 122 116 99
-0.228108 -8.387892 3.389544 210 217 215
-0.227086 -8.287338 3.393435 212 219 217
0.212047 -7.012391 3.194542 123 120 103
0.224412 -7.372990 3.166049 88 88 80
-0.245047 -7.222932 3.364348 208 215 213
0.218002 -7.637476 3.262933 106 103 90
0.186239 -7.939129 3.132448 100 98 86
-0.257249 -8.021993 3.274497 195 204 204
0.277855 -7.774104 3.094647 94 92 79
0.271626 -8.063771 2.983556 105 104 95
0.243120 -7.113354 3.098588 92 92 79
0.254803 -8.356393 2.776671 110 111 101
0.263409 -7.976556 3.026373 99 98 88
0.197152 -8.440233 2.723452 120 121 114
0.275882 -7.654912 3.162525 98 98 88
0.298978 -7.948464 3.103507 103 103 92
0.287197 -8.171427 2.901861 102 98 82
0.433015 -8.368938 2.726263 65 61 48
0.210165 -7.276874 3.229906 91 91 83
0.275350 -7.920172 3.080956 96 99 93
0.316999 -7.530824 3.141981 93 92 75
0.305863 -7.622925 3.141988 92 90 74
-0.100693 -7.759832 3.176780 122 119 101
0.280610 -7.611407 3.199090 92 92 84
